# .PCD v0.7 - Point Cloud Data file format
VERSION 0.7
FIELDS x y z
SIZE 4 4 4
TYPE F F F
COUNT 1 1 1
WIDTH 1494
HEIGHT 1
VIEWPOINT 0 0 0 1 0 0 0
POINTS 1494
DATA ascii
-1.1135592 -0.74042773 1.0416161
-1.108912 -0.76434749 1.0568765
-1.1006014 -0.83964717 1.1356061
-1.0785247 -1.6446244 1.3312728
-1.1270429 -0.70433515 1.0429069
-1.1161822 -0.70938921 1.0477555
-1.1101288 -0.72915912 1.057605
-1.1103323 -0.91218746 1.1277461
-1.1047888 -0.74715263 1.0723668
-1.1114652 -0.99564528 1.1821936
-1.1088724 -0.87671942 1.1087528
-1.110956 -0.91229677 1.1309627
-1.1063832 -0.78658247 1.0614545
-1.1052561 -0.85942149 1.1232011
-1.1060764 -0.86323547 1.1262281
-1.0972713 -0.93046463 1.1729023
-1.1041068 -0.77607292 1.0846577
-1.1061839 -0.79967517 1.1065965
-1.0976992 -0.76631707 1.0886831
-1.0978581 -0.79643226 1.1105783
-1.1536956 -0.69572455 1.0667017
-1.1404939 -0.69540435 1.0654008
-1.1113911 -0.71365643 1.080292
-1.1009359 -0.79312998 1.1378613
-1.1188186 -0.71258861 1.1050063
-1.1070172 -0.7285046 1.1180934
-1.1065005 -0.75409192 1.1369652
-1.1053952 -0.78624225 1.1615487
-1.0938289 -0.83207238 1.2312289
-1.1057948 -0.76668984 1.1155279
-1.1221801 -0.70879352 1.1285661
-1.1075972 -0.72130185 1.1360645
-1.1031429 -0.88541174 1.2440829
-1.0923816 -0.82627553 1.2316952
-1.0996488 -0.72816265 1.1703347
-1.0953902 -0.75066161 1.1886427
-1.126495 -0.70241225 1.1558912
-1.1129369 -0.71077275 1.1686491
-1.0986053 -0.72117698 1.1767918
-1.1316677 -0.69677436 1.1859108
-1.1188217 -0.7050361 1.1932571
-1.085228 -1.061843 1.1839097
-1.1028515 -1.0276394 1.1692189
-1.1024925 -0.74489838 1.153064
-1.1098434 -0.71835124 1.1469171
-1.109437 -0.71951634 1.1539232
-0.96870631 -0.38151175 1.4128966
-0.95960373 -0.37880719 1.4145266
-0.97561598 -0.50300944 1.4017379
0.45261487 -0.45681322 2.1008809
-1.1115739 -0.9666636 1.2689809
-1.1247538 -0.69925022 1.2180573
-1.0539171 -0.66599739 1.3935751
-1.1410248 -0.57298392 1.3505738
-1.0531148 -0.61218244 1.4051267
-1.1432662 -0.56013578 1.3711764
-1.1366454 -0.57673544 1.3897398
-1.1158345 -0.57571346 1.4058616
-1.1417956 -0.54807132 1.3919487
-1.1200278 -0.54800951 1.4089036
-1.0961882 -0.5521825 1.4086398
-1.139837 -0.5047431 1.3959347
-1.1284182 -0.51727843 1.406121
-1.1189444 -0.53641272 1.4086252
-1.1410762 -0.49384627 1.3968821
-1.1392064 -0.49278435 1.3995759
-1.1230142 -0.50243509 1.4094125
-1.1272701 -0.47542939 1.409896
-1.1049144 -0.48581567 1.4153095
-0.95989954 -0.50738192 1.4115485
-0.94404233 -0.49120837 1.428053
-0.94446033 -0.47382042 1.4279685
-0.96034199 -0.43936872 1.4170144
-0.94708896 -0.44710201 1.4314404
-0.94731241 -0.42266312 1.4310055
-0.96406472 -0.40640652 1.4208399
-0.94938278 -0.41520435 1.4315399
-0.94867319 -0.39494947 1.4309697
-0.94902498 -0.37478918 1.4310288
-0.95120794 -0.34149379 1.4323001
-1.1031735 -1.0135829 1.2690469
-1.1033409 -0.96793848 1.2381209
-1.1029065 -0.95259196 1.2594609
-1.0685211 -0.58310813 1.4106665
-1.0991484 -0.49622208 1.4142402
-1.090176 -0.4829829 1.4114339
-0.96102351 -0.34159929 1.4107044
-0.95188397 -0.34327018 1.4319688
-0.93266237 -0.35625485 1.4352788
-0.95246118 -0.31284869 1.4332769
-0.95492512 -0.29246444 1.4359751
-0.9558987 -0.27237907 1.4356418
-1.1160235 -0.72557867 1.400368
-1.0643339 -0.62652516 1.3954567
-0.95871681 -0.65235281 1.4199212
-1.1233126 -0.54262525 1.4087104
-1.1278839 -0.46318433 1.4119562
-0.95264369 -0.35824031 1.4333894
-0.95525283 -0.31659612 1.4311165
-0.95089734 -0.33459976 1.4343203
-0.96824485 -0.26575783 1.4253739
-0.96289045 -0.18318835 1.4390087
-0.95810133 -0.25602424 1.4374468
-0.97605014 -0.22739312 1.4112809
-0.96890223 -0.22712031 1.4235213
-0.95839339 -0.23517311 1.4395621
-0.92576998 -0.24632658 1.4517676
-0.9731319 -0.20912294 1.4260911
-0.95838153 -0.21642883 1.4384315
-0.98337615 -0.19549453 1.4266341
-0.97053152 -0.19762784 1.4282914
-0.96051699 -0.19821274 1.4399379
-0.95423168 -0.82587898 1.4149028
-0.94664544 -0.79949182 1.4081641
-0.97498035 -1.1238422 1.4048371
-1.100445 -0.94292915 1.2210947
-1.0963665 -0.92292023 1.2371482
-0.96473062 -0.16857524 1.4416602
-0.96375257 -0.16865987 1.449149
-0.96492487 -0.14990029 1.4440902
-1.0859972 -1.1226147 1.0719221
-1.0898935 -1.0821431 1.0688618
-0.9838981 -0.74374545 1.4237826
-0.96505558 -0.70677489 1.4173324
-0.93614113 -0.27553576 1.4401028
0.46837839 -0.39936227 2.113481
-1.0636711 -0.72145677 1.4146385
-0.95862371 -0.7091555 1.4208144
-1.1099322 -0.92639583 1.0137314
-1.0884168 -1.0635923 1.0817709
-1.1295729 -0.58215731 1.290581
-0.96628052 -1.2081488 1.5703152
-1.0185066 -0.90327322 1.3869852
-0.93651217 -0.38859016 1.4553088
-0.97668779 -0.32381925 1.4121902
-0.93620282 -0.25787726 1.4465089
-0.94216532 -1.1872923 1.5129178
-0.99066013 -0.7692197 1.420383
-1.0877737 -1.1450558 1.0641085
-1.0860479 -1.0716186 1.0461602
-1.0880309 -1.122754 1.0490881
-1.0876366 -1.0821626 1.0297616
-1.1000504 -1.0410314 1.0321041
-1.0872667 -1.0813588 1.0339322
-1.086664 -1.0869455 1.0555365
-1.1064628 -0.95066667 1.0039645
-1.1047602 -0.97251844 1.0142508
-1.1091849 -0.93446058 0.9929235
-1.104659 -0.96850252 1.0070047
0.22432375 -0.40551513 2.1338046
-1.1043452 -0.99953216 1.2308562
-1.103072 -1.0129861 1.3001902
-1.1300757 -0.79227424 1.3648968
-0.95460033 -0.82366282 1.4267397
-1.0714805 -0.70454437 1.4058847
-1.1404436 -0.59486973 1.336553
-1.0837083 -0.66304076 1.4014888
-1.1467298 -0.56542701 1.3381236
-1.1389596 -0.59964752 1.3754693
-1.0756493 -0.60088587 1.399031
-1.0857219 -0.57212538 1.4026471
-1.1022744 -0.51842856 1.4103029
-1.0809907 -0.522282 1.4095544
-0.96237105 -0.36966893 1.4260415
-1.1046736 -1.0272468 1.2794946
-1.1024594 -0.98115921 1.2789545
-1.1081831 -1.0022222 1.3288935
-1.1107144 -0.91525829 1.2654824
-1.1077645 -0.94465888 1.2900028
-1.1109916 -0.95125824 1.3237678
-1.1120785 -0.94004363 1.3206329
-1.1087437 -0.99360436 1.3224058
-1.1146392 -0.92720664 1.3441631
-1.0422724 -0.95395106 1.3965257
-1.0995916 -0.82282078 1.2870133
-1.1120943 -0.87025684 1.3303379
-1.1153229 -0.91405725 1.3690126
-1.062716 -0.92880911 1.3962326
-1.1020312 -0.74112338 1.219577
-1.1028745 -0.79039633 1.2646632
-1.1044368 -0.82362914 1.2940543
-1.1064 -0.8281877 1.2992868
-1.1147509 -0.86971581 1.3650478
-1.1073643 -0.88943642 1.3823451
-0.96439672 -1.2874744 1.3927358
-0.93625528 -0.4335213 1.4491814
-0.98330766 -0.29904154 1.4151779
-1.0936316 -1.0432414 1.0682884
-1.1020479 -1.0095491 1.0463891
-1.0983933 -1.0434715 1.0562477
-1.0980885 -1.0187508 1.0784457
-1.0941906 -1.1603107 1.1089786
-1.0793853 -1.115163 1.0839238
-1.0948657 -1.1759017 1.0663511
-1.0930099 -1.1782925 1.0664158
-1.1069695 -1.2544478 1.1114881
0.70431179 -0.23608725 2.1369979
0.67564481 -0.2411103 2.1450987
0.32150373 -0.21481194 2.1153374
0.35020348 -0.22780308 2.1248941
0.35977736 -0.24017721 2.1240547
-1.1065211 -0.71909302 1.2035507
-1.0990324 -0.73521888 1.2195488
-1.0942969 -0.73925728 1.2494841
-1.1019278 -0.77688736 1.2844311
-1.116625 -0.82287329 1.3289536
-1.1179683 -0.85382032 1.3737606
-1.1173421 -0.85429573 1.3781866
-1.0981454 -0.86576247 1.3948181
-1.0997243 -0.72419232 1.2401968
-1.0991336 -0.72810233 1.2722493
-1.1144445 -0.77644837 1.3191528
-1.1221396 -0.81596661 1.3632743
-1.1171039 -0.84467363 1.3844911
-1.0939081 -0.84361732 1.3999221
-1.0841689 -0.84493065 1.4006263
-1.132228 -0.69436848 1.244002
-1.1180596 -0.70444036 1.2541994
-1.1018516 -0.7159242 1.2632152
-1.0995935 -0.72771192 1.2746617
-1.1154807 -0.77640462 1.3224137
-1.1218868 -0.80316859 1.3797809
-1.1041781 -0.81189942 1.3966174
-1.1003324 -0.81329644 1.3974382
-1.1152561 -0.69367737 1.274667
-1.1035382 -0.70583975 1.2847763
-1.1074184 -0.72636408 1.3059108
-1.1242365 -0.7630797 1.3636173
-1.1202372 -0.79190254 1.392056
-1.1123163 -0.7846176 1.400151
-1.0959229 -0.79987437 1.4060569
-1.120121 -0.71846867 1.3322204
-1.1222105 -0.72716838 1.3423591
-1.1230921 -0.75699717 1.3792642
-1.1108475 -0.76856047 1.4030247
-1.0861039 -0.76372546 1.4140009
-1.0961981 -1.0361805 1.2309237
-0.95803791 -0.521981 1.4135951
-0.95630413 -0.54473579 1.4067922
-0.96674037 -0.5193702 1.4128557
-0.95299619 -0.20656531 1.4656519
-0.98604083 -1.2443776 1.7027092
-1.0218719 -0.97925752 1.3915975
-1.0974211 -0.74834198 1.2291669
-1.1171253 -0.87344736 1.3377582
-1.1103344 -0.70884877 1.2263621
-1.0824802 -0.82597297 1.4070725
-1.1151483 -0.69242364 1.2766292
-1.0916913 -0.78792006 1.4076715
-1.1180426 -0.69122493 1.3069792
-1.1226004 -0.7235955 1.3408862
-1.1293157 -0.72125387 1.370631
-1.1143647 -0.73979491 1.3957523
-1.1054361 -0.75620562 1.4064674
-1.1167828 -0.65100616 1.2980474
-1.1292706 -0.69008541 1.3413415
-1.1318893 -0.70764804 1.3818854
-1.1279639 -0.71140832 1.3853102
-1.1112858 -0.7166701 1.4028902
-1.0857421 -0.72141588 1.4069841
-0.95820498 -0.74260843 1.4233298
-1.1349641 -0.65493977 1.3389326
-1.1386597 -0.67736477 1.3822619
-1.1308475 -0.70323724 1.3910185
-1.1058897 -0.7018882 1.4042377
-1.0919601 -0.68784422 1.4050791
-1.134518 -0.61740649 1.3311208
-1.1430383 -0.64988518 1.3691781
-1.1372606 -0.66996998 1.3909889
-1.1105266 -0.6639992 1.4025381
-1.1125205 -0.67391735 1.4033279
-1.1435302 -0.61148143 1.3602102
-1.1388817 -0.63300616 1.3851852
-1.122 -0.64150459 1.400008
-1.0970086 -0.63809973 1.4018736
-1.0858124 -0.63773823 1.3995994
-1.1426653 -0.58746505 1.3572372
-1.1310993 -0.61497176 1.3885639
-1.1136751 -0.62209189 1.4033012
-1.0795555 -0.60811192 1.3994571
-1.1430132 -0.585684 1.3901279
-1.1368997 -0.58681053 1.3906124
-1.1249659 -0.59760493 1.3991975
-1.0953585 -0.59095865 1.4097352
-0.96166402 -0.4696458 1.4197986
-0.93301034 -0.37388033 1.4371499
-1.0656699 -1.2594887 1.3885541
-0.93350029 -1.1659831 1.3957489
-0.92147464 -1.2000231 1.4312947
-1.0681503 -1.0929445 1.3941416
-1.0600218 -1.050487 1.3972663
-0.93044341 -0.95233428 1.430595
-0.93093044 -0.87211668 1.4297556
-0.93391418 -0.76696795 1.427507
-0.94059408 -0.60082507 1.4289384
-0.94100267 -0.56530857 1.4296516
-0.94180173 -0.56059659 1.4292723
-0.94356662 -0.5170992 1.4287504
-1.0200847 -1.051067 1.3890738
-0.95883024 -0.99962878 1.3859483
-0.93311709 -0.79387575 1.4261358
-1.0617206 -1.5823224 1.3815209
-0.92227149 -1.5617245 1.3975461
-1.1009521 -1.4866389 1.3684506
-1.0533534 -1.5281091 1.3932998
-1.0315624 -1.5237781 1.3904418
-1.0805662 -1.5112044 1.3750274
-1.0481287 -1.4053373 1.4032542
-1.0599242 -1.5523883 1.3761855
-1.0478392 -1.5896169 1.379365
-1.0484669 -1.5129305 1.3954934
-1.1007195 -1.456136 1.3598206
-1.0675609 -1.4506221 1.3906461
-1.0359095 -1.4601777 1.39674
-1.1021403 -1.4001529 1.3795334
-1.0796844 -1.3917015 1.3943309
-1.1022116 -1.2944554 1.3344132
-1.0820932 -1.3805313 1.394896
-1.0555558 -1.3396902 1.3949287
-1.0576541 -1.3198967 1.3923985
-1.0510374 -1.3279749 1.3949363
-1.1015334 -1.2065177 1.3195634
-1.1062834 -1.2684284 1.3667482
-1.0950701 -1.4621837 1.3586158
-1.1008776 -1.346403 1.3335537
-1.087404 -1.447 1.3863642
-1.0664567 -1.4574647 1.3887233
-1.0814534 -1.3048084 1.387223
-1.0943249 -1.1779606 1.2759353
-1.1018659 -1.213855 1.2980742
-1.1019695 -1.2836138 1.3365582
-1.0994419 -1.3412652 1.3678141
-1.1014856 -1.2747384 1.3694284
-1.0817052 -1.3028533 1.3895574
-1.0361497 -1.2654744 1.3867633
-0.93489838 -1.1914062 1.3929433
-1.0331521 -1.0912426 1.3855519
-0.99182343 -1.0538949 1.3879408
-0.97022289 -1.0710263 1.3944668
-0.93851584 -1.08516 1.4033366
-0.92620242 -1.1010972 1.4324943
-0.93467474 -0.9009859 1.4340878
-0.9337588 -0.83653498 1.429817
-0.93871057 -0.68008918 1.4309225
-0.94579583 -0.53729111 1.4317951
-0.95707059 -0.64140117 1.3837138
-1.0388235 -1.1018798 1.3951298
-1.0089997 -1.1174132 1.4028777
-1.0272095 -1.0650511 1.4019669
-0.97362477 -0.81824023 1.4016942
-0.92861253 -1.1649146 1.3806365
-0.97729516 -1.2106777 1.6460257
-0.94708574 -0.92761695 1.4115078
-0.94669324 -0.92245966 1.4133725
-0.91352379 -1.6226037 1.3864436
-0.99847579 -0.97275043 1.4244015
-0.96583658 -0.91135764 1.4052087
-0.97931653 -0.9378776 1.404826
-0.98755807 -0.95517159 1.4106803
-1.015631 -0.95383382 1.4136189
-0.96405923 -0.76956815 1.4142563
-1.0037954 -1.1658998 1.3909229
-1.0349923 -1.0086676 1.3927344
-0.9298479 -1.0262001 1.434359
-0.93125468 -0.94781238 1.4325616
-0.95199615 -0.54339617 1.4109327
-0.94280124 -0.56306922 1.4329373
-1.0356879 -1.5399249 1.3959074
-1.032316 -1.161803 1.3990207
-1.0813955 -1.5097517 1.389756
-1.1037399 -1.3471316 1.3749501
-1.0982794 -1.1214069 1.3041985
-1.1090047 -1.2096547 1.3606185
-1.0985233 -1.0480144 1.2611959
-1.1016593 -1.0665511 1.3011868
-1.1076463 -1.1253451 1.3394051
-1.0483228 -1.203638 1.392791
-1.11392 -1.1237023 1.3794549
-1.0940384 -1.1446091 1.3934903
-1.0607585 -1.1528393 1.3959633
-0.92210698 -1.1714116 1.4289535
-1.113135 -1.1196876 1.3825911
-1.0825061 -1.1115834 1.3927563
-0.94568735 -1.1203659 1.410244
-0.92298591 -1.1620638 1.4305748
-1.1166165 -1.0633466 1.379859
-0.92790109 -1.0781548 1.4320387
-1.1142375 -1.024507 1.3861321
-1.1107061 -1.0302159 1.3911469
-1.0875673 -1.0444891 1.4002335
-0.9275794 -1.0627012 1.4311019
-1.120929 -0.97637683 1.3834733
-1.0922295 -0.99551988 1.3967724
-0.92683029 -1.0014369 1.4281813
-1.1203363 -0.97423255 1.3845643
-1.0966733 -0.97400343 1.3976631
-0.95236456 -0.96600688 1.4132771
-0.94573087 -0.96635342 1.4131105
-0.92693299 -0.98523921 1.4264901
-1.0969391 -0.93116444 1.4012057
-0.92850226 -0.95652646 1.4280491
-1.0925069 -0.90868092 1.3965689
-0.97014952 -1.3268944 1.394612
-0.96964091 -1.3256116 1.3859972
-0.93761653 -1.3530515 1.401649
-1.0005585 -1.2531751 1.3896033
-0.95556152 -0.88762027 1.4174849
-0.91873091 -0.55473918 1.4451327
-0.93467194 -0.48483315 1.4472381
-0.92705989 -0.46558028 1.444314
-0.99380529 -0.84791386 1.4080765
-0.96402788 -1.5238687 1.3946375
-1.1006093 -1.3085757 1.3106221
-0.95408762 -0.84408045 1.4156647
-1.0160304 -1.2028171 1.3850679
-1.0204369 -1.2161787 1.3980638
-0.92988628 -0.92468935 1.4289128
-0.92946231 -0.88933003 1.4270824
-0.92864043 -0.85074157 1.4226772
-0.93009776 -0.80029505 1.4225123
-1.0853992 -1.0822467 1.2287421
-1.0901403 -1.1364616 1.2814717
-1.0867213 -1.1115475 1.2578428
-1.1053934 -1.2476676 1.3585994
-1.0934989 -1.0773242 1.262516
-1.1093884 -1.1975223 1.3674952
-1.1019388 -1.2341636 1.3846343
-1.0857503 -1.2497494 1.3901685
-1.1089966 -1.1724142 1.3799288
-1.0900073 -1.1883937 1.3903028
-1.0934767 -1.2282214 1.3870332
-0.94925874 -1.5155472 1.3798119
-1.0355959 -1.3457714 1.3981873
-0.98215503 -1.2010394 1.3948181
-0.92118698 -1.189292 1.4263811
0.4616212 -0.46718106 2.0689962
-1.0524638 -1.7370316 1.3732582
-1.0724015 -1.7152168 1.3673279
-1.0807542 -1.6827654 1.3600358
-1.0564641 -1.7495947 1.3781508
-1.0536791 -1.6886048 1.3726962
-1.0100962 -1.0179291 1.4022367
-0.98067975 -1.0179207 1.401739
-1.0566279 -1.651744 1.3760433
-1.0976287 -1.3954387 1.3189149
-1.1017874 -1.2903777 1.3062948
-1.0910876 -1.1568687 1.2442
-0.99431139 -1.0467422 1.4139082
-0.91113216 -0.76976788 1.4309242
0.44432604 -0.4956536 2.0705078
-0.98302555 -0.89912528 1.393955
-1.0785397 -1.0724341 1.1921365
-1.0334351 -1.2526034 1.3852775
-0.94070876 -1.0255488 1.4055333
-1.0733467 -0.89396274 1.4026798
-1.0966423 -1.2181854 1.2636193
-1.0828321 -1.1219012 1.2221459
-1.0924855 -1.1638527 1.2243414
-1.0731962 -1.7993722 1.3285693
-1.0514315 -1.8130257 1.2683613
-0.97756702 -0.87380224 1.4086936
-1.0123663 -2.1078234 1.374319
-1.0372398 -2.0638351 1.3691958
-1.0733296 -2.0857635 1.3456992
-1.0626777 -2.1634989 1.3586018
-1.0464331 -2.1017148 1.373284
-1.0335416 -2.1766865 1.3736527
-0.99355268 -2.1859143 1.3754481
-1.0660514 -1.7457184 1.2831436
-0.97438067 -1.3955613 1.4103947
-1.0865059 -1.3014535 1.257164
-1.0956421 -1.3664954 1.3108793
-1.0960007 -1.292008 1.2735866
-1.0139627 -1.4125125 1.4032494
-1.0953224 -1.2892668 1.2687591
-1.0023215 -1.5334429 1.3940588
-1.0628268 -1.7554923 1.250693
-1.0607145 -2.0679584 1.3192301
-1.0750153 -1.6955348 1.3090317
-0.99247688 -2.191299 1.3727028
-0.93391758 -1.5917764 1.3756967
-0.99926579 -0.87920445 1.3926977
-0.98157358 -1.4674145 1.404297
0.34746319 -0.26337165 2.1344078
0.32621798 -0.25187185 2.1419694
0.31173483 -0.2995739 2.1102455
0.31879115 -0.26338795 2.1337395
0.27226749 -0.29430199 2.1385655
0.32232657 -0.32129589 2.1421611
0.23397344 -0.30910131 2.1251554
-1.0182636 -1.1202573 1.3973483
-0.92630082 -1.11217 1.433925
-0.96639276 -0.96327877 1.4128057
-0.9298265 -0.98645842 1.4322065
-0.93179953 -0.82910144 1.4292532
-0.93604606 -0.72983384 1.4295346
-0.94662809 -0.53512257 1.4334006
-0.949148 -0.85374379 1.4164047
-0.94336015 -1.3510919 1.4019473
-1.0160999 -1.3397106 1.3960388
-0.93396854 -1.338156 1.4008259
-1.0016521 -1.2172675 1.6310576
-0.96458888 -1.1928546 1.3936255
-0.98951066 -1.1711295 1.4130545
-1.0617772 -0.99525833 1.3963698
-0.93327081 -0.75744998 1.4249103
-0.93383878 -0.7164619 1.4260261
-0.93565303 -0.68613625 1.4238034
-0.93565333 -0.67298383 1.4250777
-0.93739682 -0.63561189 1.4250077
-0.93875426 -0.62442732 1.4286293
-0.9461242 -1.1450348 1.4000233
-0.97848332 -1.2358408 1.6066589
-0.93022871 -1.0782375 1.4343431
-0.96705246 -1.158758 1.374265
-0.94062877 -1.1510248 1.3664343
-0.89787555 -1.3680356 1.4333415
-0.89221698 -1.3185616 1.5251715
-0.89645332 -1.6116827 1.4150413
-0.89586091 -1.6029674 1.4099351
-0.89951473 -1.5534467 1.4130861
-0.89913338 -1.5441948 1.4134253
-0.90532434 -1.4761519 1.4212857
-0.90517831 -1.4498781 1.4196284
-0.90667349 -1.3413744 1.4289312
-0.90095568 -1.3498093 1.436947
-0.9027313 -1.3394948 1.4345905
-0.89175487 -1.3313893 1.4710977
-0.91681081 -1.2772894 1.4268851
-0.91055393 -1.2916594 1.434962
-0.89164776 -1.3287586 1.4737738
-0.91196436 -1.3707306 1.4225271
-0.9023056 -1.3449767 1.4373618
-0.91157258 -1.3792961 1.4229977
-0.89283621 -1.3311635 1.4728217
-0.8936522 -1.318221 1.5666724
-0.95315439 -1.2606175 1.6602545
-0.94915992 -1.2401519 1.7165077
-0.91049951 -1.2773161 1.4788656
-0.90559155 -1.4673469 1.4208895
-0.9177168 -1.2338974 1.4296987
-0.91068244 -1.2770754 1.4815
-0.89197123 -1.3268778 1.4784054
-0.91071749 -1.2708019 1.5385389
-0.90925914 -1.2720395 1.5392396
-0.92718238 -1.2423435 1.4996947
-0.91114432 -1.2793447 1.522776
-0.89252341 -1.3135582 1.5484035
-0.92817432 -1.232303 1.5005324
-0.89538026 -1.3195831 1.6015891
-0.89525497 -1.32103 1.607438
-0.91459805 -1.2767636 1.60796
-0.8991546 -1.3271413 1.666132
-0.96796936 -1.2325324 1.6003066
-0.92214161 -1.2842058 1.6597376
-0.90041429 -1.3281256 1.6813247
-0.95032746 -1.2585326 1.6730487
-0.92468935 -1.2747706 1.6850336
-0.92475957 -1.2726198 1.7312428
-0.88301778 -1.3931714 1.5259553
-0.87654936 -1.375017 1.5098809
-0.87514603 -1.474149 1.4308425
-0.8828975 -1.402496 1.4685524
-0.90113109 -1.5075262 1.412182
-0.98819977 -1.2575988 1.6701853
-0.95266449 -1.2463757 1.7071179
0.30200946 -0.34252986 2.1096518
-0.87995869 -1.5765136 1.4458771
-0.87656528 -1.5796832 1.4476501
-1.0645738 -2.0512917 1.3702066
-1.072674 -2.0431471 1.3216957
-1.0622369 -2.0148904 1.3505437
-1.0639096 -1.9904022 1.3415352
-0.90451366 -1.2757945 1.5040807
-0.92657715 -1.2269324 1.4935971
-0.94536316 -1.2259238 1.728824
-0.89405859 -1.4233299 1.4505385
-0.89093101 -1.4847623 1.4496241
-0.95117509 -1.2363874 1.7422044
-0.89830524 -1.5785583 1.4118166
-0.91020501 -1.3808486 1.4213068
-0.91053909 -1.269878 1.4629757
-0.91425586 -1.2582961 1.4668559
-0.89164001 -1.3185996 1.5063906
-0.90546054 -1.4617229 1.4200577
-0.91118592 -1.2726988 1.5569994
-0.94527364 -1.2497019 1.6061732
0.45055097 -0.3928259 2.1292009
-0.93844396 -1.2613103 1.5840013
0.19410312 -0.34723398 2.1491098
0.20417364 -0.32006937 2.148241
-0.86646128 -1.3667107 1.5472753
-0.95218271 -1.8163229 1.3624268
0.43565172 -0.41794425 2.134496
0.46963993 -0.36099452 2.133611
0.8567211 -1.0931183 2.0450673
0.21832627 -0.34468609 2.1290603
-1.0166204 -1.8408662 1.3752314
-1.0307878 -1.7872574 1.3884819
-1.01947 -1.7581259 1.3825541
0.3418968 -0.44098181 2.1400645
0.37807915 -0.3508893 2.1412563
0.21770157 -0.36631736 2.1376753
0.37353545 -0.41739479 2.1305056
0.34802133 -0.40867025 2.1396465
0.37087426 -0.38415465 2.1496227
0.33771956 -0.3614248 2.1409025
0.24215843 -0.37734532 2.1399329
0.39754125 -0.32104954 2.104578
0.43805385 -0.30738243 2.1029069
-1.0023192 -1.8404748 1.3764524
0.29692179 -0.37005621 2.1319661
0.33254772 -0.39480329 2.1574769
-1.0012867 -2.4458563 1.3723737
-1.0060459 -2.3219512 1.3652818
-1.0205547 -2.4388478 1.3772835
-1.030092 -2.434623 1.3667167
-1.0320079 -2.402375 1.3644042
-1.0247301 -2.4087296 1.3697515
-1.003176 -2.3456504 1.3853502
-0.98395997 -2.3265989 1.3792263
-0.99351716 -2.5287917 1.3827236
0.3838802 -0.31514615 2.1191955
0.27340907 -0.34819958 2.1214285
0.443266 -0.34658897 2.1294026
0.41497016 -0.44404638 2.0996795
0.85841042 -1.3505214 1.9936237
0.39425302 -0.51118279 2.1211548
0.46131903 -0.43047193 2.1139975
0.38357541 -0.50299656 2.1392884
0.40002766 -0.43385816 2.110961
1.0392038 -1.5003297 1.9368453
0.86467838 -1.3147295 2.005163
0.97107458 -1.3832074 1.9815127
0.92707467 -1.2290351 2.0093842
0.86372882 -1.1395537 2.0359354
0.95721477 -1.597905 1.9347665
1.0192858 -1.5823199 1.9704247
0.88931161 -1.2420223 2.0148458
0.89338982 -1.27917 2.0096624
0.89585847 -1.2264876 2.0230529
0.83204657 -1.243983 1.9954466
0.87381601 -1.2153809 2.0130045
0.86143184 -1.2840548 2.0205231
0.89073932 -1.0964265 2.0346394
0.49460697 -0.52782875 2.1010821
0.73981255 -2.4565742 2.1398468
0.96747315 -1.5880731 1.9323339
0.84070879 -1.1234746 2.0108619
0.97518098 -1.3844712 1.9582565
0.89531571 -1.0745599 2.0577607
0.81030899 -1.1610285 1.9996619
nan nan nan
0.90115947 -1.1846972 2.0272899
0.9350127 -1.445912 1.9919033
0.99139357 -1.2370565 2.0023799
0.93304747 -1.2167836 2.0127122
0.97651857 -1.3638963 1.9899426
0.98908758 -1.2293714 2.0009429
0.99450439 -1.2357336 2.0068948
0.9731431 -1.4198174 2.0156784
0.90311319 -1.209967 2.0219588
0.91900986 -1.5508949 2.0371745
0.80619216 -2.3639405 2.1107941
0.78536093 -2.3874197 2.1140301
0.92443365 -1.1655834 2.0413344
0.96138072 -1.5500753 2.0339181
0.91234219 -1.5650554 2.0035875
1.0051783 -1.6162335 2.0225947
1.0130547 -1.6255529 2.0405748
1.012666 -1.6183757 2.0401859
0.94506925 -1.3703436 2.0220678
0.98027062 -1.3742872 1.9676851
0.81387365 -2.4054589 2.0878894
0.76622665 -2.4098947 2.1267154
0.76861876 -2.4031227 2.1188738
0.89777225 -1.5813243 1.9967333
0.91932887 -1.4005179 1.9978162
0.95749909 -1.4514816 2.042439
0.81938958 -1.14529 2.0231588
0.80305314 -1.1586316 2.0218024
0.78978276 -1.1648363 2.0249581
0.90970391 -1.3726763 2.0180354
0.77035105 -2.3761375 2.1333184
0.86083943 -2.4347045 2.0706391
0.75389808 -2.3738959 2.1308169
0.76382077 -2.3962429 2.1515565
0.97328353 -1.3428758 2.0129232
0.99811739 -1.3903496 2.0400233
1.00427 -1.3884809 2.0377281
1.0025314 -1.4344628 2.0454266
0.96136689 -1.3007809 2.0599904
0.98399848 -1.222176 2.004055
1.2860649 -1.8896841 2.1181242
1.0525281 -1.4461378 1.9903572
0.97381848 -1.2762367 2.0163755
0.93741554 -1.2449936 2.0121341
1.0917426 -1.4706273 -0.043333586
0.86372864 -1.7445811 0.12673789
0.8556813 -1.7497147 0.12274703
0.85994965 -1.7424467 0.12281521
0.88955218 -1.8008654 0.13206041
0.89460212 -1.8373349 0.1471248
0.86441773 -1.805975 0.10393026
0.86844444 -1.8235284 0.10093732
0.8934176 -1.8400741 0.13312113
0.89273673 -1.8330053 0.12586534
0.87111145 -1.8377594 0.098250464
0.89222699 -1.8598185 0.13244495
0.84962553 -0.58211792 0.11902446
0.84888631 -0.58107996 0.078070156
0.92402458 -0.11405332 0.10753046
1.1499174 -1.6289687 0.16252622
1.3481673 -1.7938999 2.1200495
1.3108137 -1.7951659 2.1193736
0.87635893 -1.8054912 0.07580743
0.8735339 -1.8128998 0.076028392
0.85263288 -0.58331704 0.091257796
1.0941083 -0.10572657 0.12470912
0.99673289 -1.4960959 2.0367892
1.0008448 -1.5023546 1.9891937
1.0046064 -1.5209277 1.9994143
1.0087396 -1.5404431 2.0098484
0.97372478 -1.4308758 1.9792012
0.94807953 -1.5125457 2.0084476
0.97484189 -1.477975 1.9895976
0.97396439 -1.5752356 2.0091252
0.9043014 -1.5954145 1.9988816
0.97884887 -1.4330057 1.9692782
0.99260318 -1.6147349 2.0227716
0.92693442 -1.8786503 0.22050372
0.91892803 -1.8739181 0.24545929
0.92145956 -1.872327 0.24631202
0.9311958 -1.8884524 0.25058505
0.95597327 -1.8667382 0.25560552
0.9108386 -1.5728625 -0.022214029
0.89699793 -1.6976175 -0.032104641
0.90126324 -1.6958586 -0.023509908
0.90106481 -1.6882441 -0.0086805802
0.90494567 -1.6885728 -0.024659673
0.95151657 -1.504401 -0.032133911
0.96041763 -1.5174315 -0.013337634
0.92813355 -1.5307478 -0.027137136
0.94904286 -1.5042281 -0.031536948
0.93229151 -1.5684267 -0.033155333
0.94513708 -1.5253028 -0.035350904
0.95841187 -1.5097824 -0.036078777
0.8952443 -1.6698703 0.0030237506
0.89502251 -1.6662142 0.0034671528
0.92848867 -1.4239203 -0.065032527
0.91280919 -1.5684379 -0.018779682
1.0443676 -1.4721745 -0.07374844
0.93408716 -1.4651973 -0.063932039
1.0000057 -1.4419703 -0.073964365
0.90465528 -1.7382771 -0.0066119074
0.89344114 -1.7480112 -0.0061857328
0.89518875 -1.756124 0.011149088
1.0006708 -1.4329137 -0.073124126
0.92349672 -1.8178298 -0.04298706
0.89012575 -1.7778292 0.048390534
0.89658284 -1.8331678 -0.007523668
0.88553476 -1.9217985 0.019320177
0.89337033 -1.8527912 0.037867192
0.88603753 -1.9059057 0.033348303
0.89067262 -1.8481249 0.044837099
0.88017929 -1.892082 0.059112161
0.89329839 -1.8584187 0.015782885
0.89320934 -1.9199361 -0.0035840305
1.0110866 -1.5502394 2.0313039
1.0054166 -1.5459892 2.0277119
1.0789375 -1.5096773 2.0274177
1.0166763 -1.5552516 2.0414579
1.050772 -1.5255057 2.033186
1.0751685 -1.496262 2.0311558
1.0421916 -1.4322439 2.0338781
1.0463413 -1.5150595 2.0310087
1.0615693 -1.4792353 2.0281763
1.009393 -1.5585849 2.0162218
1.0126431 -1.4710927 2.0402615
1.1992764 -1.8937478 2.0980024
1.3405265 -1.8480684 2.0974948
1.2774184 -1.8087232 2.1182287
1.3461074 -1.8837585 2.1236949
1.0739434 -1.5858272 2.0300534
1.2102735 -1.8536758 2.1117008
1.0461652 -1.6879278 0.24029757
1.0441798 -1.6886355 0.25130913
1.0494884 -1.7200372 0.2659815
1.0564227 -1.7001343 0.26997638
1.0868193 -1.6824747 0.23704281
1.08331 -1.6825719 0.23673116
1.0124809 -1.6988695 0.19439219
1.0309963 -1.6790814 0.19044998
1.0146972 -1.6909022 0.19157854
0.89788932 -1.6846957 0.080456309
0.89601707 -1.6952064 0.087183647
0.89613205 -1.6817744 0.078945734
0.9688397 -1.5824432 0.01606676
0.88173807 -1.6805 0.061864946
1.0303458 -1.6789181 0.19428253
1.0370857 -1.6869274 0.20763187
1.0157343 -1.6873854 0.18325034
0.89336807 -1.6978773 0.070650235
1.1659402 -1.6172937 0.024220459
1.1894852 -1.6199616 0.02307816
1.1553525 -1.6195554 0.04571123
1.1524081 -1.6283568 0.038677316
1.1405009 -1.6001536 0.023151057
1.1850348 -1.6503516 0.039004695
1.1225562 -1.6280739 0.056405179
1.2189879 -1.6184391 0.011502819
1.2148452 -1.6357267 0.022790855
1.0330549 -1.7634053 0.23053265
1.0724986 -1.6955904 0.20847255
1.2056315 -1.624029 0.030805044
1.1774235 -1.6241198 0.044191256
1.2316241 -1.6972269 0.056951493
1.1813153 -1.6416637 0.079261862
1.1840775 -1.64696 0.078584038
1.1709149 -1.640601 0.08444573
1.1773801 -1.6435448 0.096644707
1.1488506 -1.6544732 0.12012994
1.0746861 -1.7010288 0.18296672
1.0418919 -1.726218 0.29343832
1.0196294 -1.7310152 0.28948313
0.9703812 -1.7249653 0.27982196
0.96746683 -1.740739 0.13252594
0.97132808 -1.7465963 0.15489821
0.94721889 -1.8168154 0.19792874
0.92496955 -1.5165817 0.0018912421
0.95208162 -1.5301518 0.009075
0.92772096 -1.5592247 0.0044058519
0.90196747 -1.6512718 0.044454359
0.90091902 -1.6288261 0.027898859
0.90146768 -1.6269155 0.027310237
0.88405275 -1.6901115 0.058717951
0.9741565 -1.7373353 0.18016379
0.97970915 -1.754693 0.18463098
0.97654128 -1.7522497 0.18338045
0.97265857 -1.7555631 0.15457693
0.97788483 -1.7724411 0.18907803
0.95190871 -1.4357476 -0.066219218
0.99248016 -1.704392 0.17877245
1.1105068 -1.6160676 0.066434987
1.107929 -1.6162568 0.065885946
1.1051733 -1.6089997 0.054141466
1.1245762 -1.6310755 0.097169273
1.0117713 -1.5404931 0.00068710319
1.0022657 -1.530122 -0.017710203
0.99294496 -1.5411448 0.01021326
0.94979835 -1.5377738 0.02230712
0.94488204 -1.531862 0.024319032
0.91883463 -1.538438 0.026131285
1.1137626 -1.6412556 0.087922432
1.1257671 -1.6336291 0.064243063
1.1251432 -1.6370957 0.089935049
1.1200507 -1.626713 0.078755334
1.1271411 -1.6354407 0.09250164
1.083294 -1.6208503 0.074606515
0.96409142 -1.8628722 0.23819828
0.98556685 -1.8303307 0.22348969
1.0091418 -1.7092921 0.18914245
0.97918838 -1.8418572 0.23376141
1.0349729 -1.6689113 0.14719518
1.0302378 -1.7366056 0.20873229
1.0964851 -1.6297508 0.10208762
1.0224745 -1.671257 0.1497018
1.0235742 -1.6729202 0.14949517
1.0036902 -1.6921437 0.15143818
0.89461505 -1.7534858 0.022444025
1.0138165 -1.7802441 0.23351401
0.96106941 -1.8561561 0.22234204
0.96081692 -1.8606601 0.22611396
0.96350718 -1.8632218 0.2323505
1.0490677 -1.6543988 0.11258409
1.0731436 -1.6707081 0.12164943
1.0568823 -1.6850622 0.14659189
1.0657234 -1.6879811 0.15041342
1.0627269 -1.6815407 0.14702156
0.96354568 -1.6397723 0.053145446
0.91134721 -1.6391159 0.054954849
0.93014848 -1.7441465 0.11838423
0.93177474 -1.7437667 0.11826871
0.93089968 -1.7424822 0.11844556
0.90440625 -1.688077 0.091556124
0.92459571 -1.7531016 0.11781689
0.99656701 -1.643883 0.029575042
0.93303776 -1.5843458 0.044685744
0.93019074 -1.753407 0.11643032
0.93138361 -1.7552184 0.11423282
0.89832407 -1.7821748 0.13068244
0.89185047 -1.7451637 0.10185615
0.91265446 -1.6091782 0.062889665
1.1120853 -1.5514631 -0.013314401
1.1342219 -1.6080828 0.024152348
1.1335492 -1.5495083 -0.004779153
1.1341261 -1.5496433 -0.0047059376
1.1365173 -1.5558329 -0.0040071579
1.1374857 -1.5576849 -0.0050729057
1.1192009 -1.5796643 -0.0019903139
1.1176153 -1.5772177 -0.0015854375
1.0965632 -1.5876088 0.0066432934
1.136585 -1.4474719 -0.047872737
1.1384704 -1.5217237 -0.013191136
1.1638134 -1.5843273 0.0088819209
1.1280315 -1.6001337 0.015708815
1.1336627 -1.5966665 0.0028322884
1.147042 -1.5908442 0.012586121
1.14338 -1.5219913 -0.0098066414
1.1449312 -1.5244313 -0.0099561652
1.1513592 -1.5282538 -0.0079445047
0.91126889 -1.7907751 0.12828632
1.092566 -1.4669689 -0.034875151
0.90555477 -1.6040465 -0.07034225
0.92124033 -1.5954654 -0.071535088
0.96307039 -1.5599161 -0.056576941
1.0247322 -1.644327 0.079647295
1.0341604 -1.6596031 0.060174584
1.0128791 -1.6650631 0.070397466
0.93274313 -1.6720552 0.097679734
0.94854373 -1.7856578 0.15390407
0.92618787 -1.657245 -0.057921749
1.0466698 -1.604594 0.068125464
1.0424998 -1.6044513 0.074193753
1.0339094 -1.6004697 0.071114883
1.0252045 -1.5845155 0.037579842
1.035562 -1.5921805 0.048139092
1.0336709 -1.5914047 0.050257586
1.0371827 -1.5911187 0.040766109
1.0289077 -1.590765 0.046567231
1.0275352 -1.5898687 0.04977848
0.96641916 -1.65066 0.099141248
0.97033918 -1.6684965 0.10733272
1.0089105 -1.663239 0.10579508
1.0372634 -1.6485349 0.072325021
1.0071132 -1.6537133 0.11437134
1.0130321 -1.6548061 0.11728638
0.99253678 -1.6899887 0.14598586
0.98384351 -1.6471229 0.075410701
0.99025351 -1.6500795 0.074131623
1.0068712 -1.6594136 0.10842849
0.95045304 -1.6542664 0.11758533
0.96427822 -1.732469 0.12793347
0.9627679 -1.775238 0.19845231
0.94282341 -1.7767749 0.15285905
0.9331404 -1.7856079 0.14538944
0.93698859 -1.7829933 0.14297611
0.94420123 -1.4991646 -0.066128574
0.94162482 -1.5916871 -0.070304982
0.94250166 -1.5819988 -0.068553142
0.93577588 -1.5387435 -0.094610132
0.92987692 -1.5321758 -0.098514594
0.92626578 -1.806281 0.17388555
0.94119394 -1.5294836 -0.068090215
0.94021708 -1.5874742 -0.092901655
0.97562808 -1.672652 0.11186834
0.97837907 -1.6782522 0.12369087
0.95967859 -1.6848124 0.11035321
0.93759054 -1.6870663 0.098755538
1.1156526 -1.5037711 -0.02546322
0.8634761 -1.6492825 0.048032042
1.0990641 -1.6098226 0.055131417
1.0989771 -1.6087542 0.056976754
1.0911306 -1.6026033 0.0052462798
1.0950347 -1.6053416 0.040963251
1.096171 -1.6006581 0.035514496
1.0702732 -1.5511031 -0.012823739
1.0532523 -1.4947882 -0.031403728
1.0587193 -1.5466586 -0.0088569913
1.0841447 -1.5395812 -0.023336707
1.0539888 -1.494161 -0.035272334
1.0913215 -1.597414 0.038386866
1.0891646 -1.5949541 0.020220125
1.0933239 -1.5969571 0.036064137
1.0912702 -1.5971928 0.038663186
1.0930331 -1.5967191 0.037877779
1.0885116 -1.610276 0.041443691
1.0498925 -1.5613829 0.0015661914
1.0820524 -1.5957022 0.00048245344
1.0448489 -1.6045375 0.08052513
1.0256091 -1.5557555 0.0048304102
1.0187578 -1.6538434 0.1195507
1.0415601 -1.6486541 0.086331733
1.0321293 -1.5062459 -0.038270034
1.0616384 -1.5329987 -0.019972496
1.042452 -1.5030502 -0.035064522
1.1289126 -1.4569045 -0.068758294
1.026981 -1.5269073 -0.016961055
0.9242413 -1.4783272 -0.081638195
1.0975213 -1.4731733 -0.25297189
1.0909745 -1.4867636 -0.23864044
1.051475 -1.4556433 -0.25142807
1.0566795 -1.4624667 -0.25392357
1.0345178 -1.4597191 -0.2230453
1.0251045 -1.4537882 -0.2107695
1.0838016 -1.4870013 -0.23324424
1.0648705 -1.4641871 -0.22904566
0.9851945 -1.4959646 -0.039817944
1.0573794 -1.4562409 -0.25619179
1.0605985 -1.4547105 -0.25815433
0.9099189 -1.7368917 -0.082410775
1.0341778 -1.462203 -0.25697669
0.92062092 -1.59482 -0.10456945
0.85655361 -1.6619911 0.047818258
0.98521465 -1.5924685 0.021825375
1.0962692 -1.4675672 -0.26108846
1.004904 -1.8183798 0.23014054
0.8527624 -1.3673961 -0.14245102
0.90379089 -1.6759771 -0.12682235
0.9532274 -1.4342113 -0.19732761
0.91925365 -1.4063423 -0.19063196
0.88249588 -1.3908962 -0.16830896
0.95293546 -1.4114761 -0.19335379
1.0996274 -1.5125693 -0.20782347
1.0778723 -1.4995118 -0.21256435
1.0841266 -1.4904898 -0.21578319
1.030357 -1.4728061 -0.26479706
1.0640187 -1.4640623 -0.26440305
0.97628707 -1.461655 -0.196033
1.0666044 -1.5076114 -0.1998886
1.0380151 -1.4533556 -0.18527719
0.9480741 -1.3967043 -0.15228225
1.0428251 -1.5013394 -0.20876658
1.0068775 -1.4945548 -0.19208258
0.94991308 -1.3968239 -0.12489277
0.87522596 -1.4230366 -0.17804174
1.0839055 -1.4544842 -0.28578243
0.8825193 -1.4533007 -0.16471088
0.91313493 -1.7470398 -0.15887341
0.92348295 -1.8289388 -0.10196089
0.91054106 -1.8464475 -0.17364015
0.91073728 -1.7921623 -0.12993953
1.02636 -1.5069617 -0.16978438
1.0976148 -1.5384741 -0.17879686
0.98986208 -1.479762 -0.18939866
1.0694759 -1.5246345 -0.18421197
1.2200173 -1.2814585 0.13241185
1.1482229 0.36530021 -0.2428906
nan nan nan
nan nan nan
1.6242248 0.85454297 -0.083152041
nan nan nan
nan nan nan
nan nan nan
nan nan nan
1.201845 0.32271704 -0.23026121
1.5365266 0.74434477 -0.30562019
nan nan nan
1.2224063 0.61388612 -0.72843856
nan nan nan
nan nan nan
nan nan nan
nan nan nan
nan nan nan
nan nan nan
nan nan nan
nan nan nan
nan nan nan
nan nan nan
nan nan nan
nan nan nan
nan nan nan
nan nan nan
1.3653203 -1.2556019 -0.58110029
1.2596636 -1.0996282 -0.57660788
nan nan nan
nan nan nan
nan nan nan
nan nan nan
nan nan nan
1.2891139 0.74159986 0.22184807
1.4310544 0.92851031 -0.75171465
1.4339244 0.92600471 -0.75242507
nan nan nan
1.2975152 -1.2189505 -0.49217367
1.64557 0.95665723 -0.1035512
1.9384481 1.1282108 -0.12063056
1.243988 0.62311655 -0.70851356
nan nan nan
nan nan nan
nan nan nan
1.2835259 0.6785239 -0.73159832
1.2715329 0.67428052 -0.73237842
0.87933195 -0.027202629 -0.34626999
0.88147557 -0.025649456 -0.34714848
nan nan nan
1.545893 0.78327316 -0.34713098
1.485432 0.72523046 -0.43820125
1.553315 0.8077426 -0.19600408
1.5501417 0.80251896 -0.17590776
1.55669 0.79975176 -0.13934112
1.5768461 0.81496912 -0.11970162
1.5646267 0.77807522 -0.31627816
1.2574499 0.68486357 -0.7614513
1.2290233 0.6611914 -0.76451886
1.2579849 0.71397966 -0.7655496
1.2423677 0.73833191 -0.76829511
1.2720629 0.72211039 -0.7631942
1.5573502 0.81007928 -0.4133403
1.5445241 0.78464705 -0.47001654
1.5341048 0.79607004 -0.37066078
0.78089565 -0.18664066 -0.46732312
0.75968379 -0.19425622 -0.45453039
1.495445 0.73940641 -0.26358703
0.75514746 -0.1951887 -0.45482162
1.5275476 0.7667737 -0.31410739
0.73895651 -0.20301713 -0.45173362
0.85925728 -0.027817922 -0.52111661
0.86251634 -0.010907664 -0.51971775
0.85786366 -0.036695965 -0.53905177
0.86642843 -0.025302667 -0.5447675
1.1686534 0.34996742 -0.70271474
1.5051178 0.74307692 -0.45542893
0.8866815 -0.48335934 -0.5628137
0.85824716 -0.035219375 -0.55831748
0.72644258 -0.17608893 -0.51448298
1.1450832 0.37141907 -0.69113714
1.1452448 0.3639597 -0.70113254
1.1467202 0.407828 -0.7115714
1.1453258 0.34523952 -0.71005929
1.1459994 0.34629399 -0.70995611
1.1296064 0.3859807 -0.69854796
0.73999316 -0.16853388 -0.52049464
0.7474584 -0.15985399 -0.52663553
0.85488075 -0.038907405 -0.5779984
1.2111056 0.45785639 -0.728652
1.4224304 0.75232607 -0.77211124
0.72468019 -0.17381427 -0.52409506
1.1126325 0.3772001 -0.69796705
0.72966039 -0.17165421 -0.52653253
1.1161925 0.38687867 -0.7075156
1.1661918 0.43479291 -0.72929114
1.1145576 0.4034664 -0.72456932
1.1182479 0.41590241 -0.7295562
1.0895464 0.36053514 -0.70149833
1.1263033 0.43192378 -0.73516548
1.0929842 0.34727824 -0.70647609
1.218297 0.6955477 -0.76458901
1.1950053 0.62035555 -0.76040089
1.2130896 0.61154062 -0.76464051
1.217942 0.61909419 -0.76282156
1.2220013 0.68926656 -0.76471817
1.1085652 0.33241922 -0.74623293
1.0783969 -0.68575674 -0.74092239
1.2050991 0.45464441 -0.72893435
0.6562081 -0.30869323 -0.50655472
0.68441403 -0.25475827 -0.51768357
0.65212864 -0.35496035 -0.51396173
1.1426041 0.46553263 -0.74453729
1.152808 0.56748945 -0.75206327
1.0842338 0.3875629 -0.72806865
1.1725576 0.56388885 -0.76385045
1.0519514 0.17390442 -0.75651252
1.0641791 0.18981829 -0.75328755
1.0875143 0.38487342 -0.73021889
1.0895613 0.3855924 -0.73010057
1.0745271 0.20564167 -0.7540341
1.0752244 0.21881458 -0.75453895
1.0675758 0.24187805 -0.7542159
1.0650237 0.26959887 -0.74944443
1.0891802 0.24899316 -0.75117368
1.0934309 0.28059122 -0.75279164
1.0782827 0.29745823 -0.74943
1.0139366 0.13296805 -0.74677908
1.0486845 0.11345837 -0.75773019
1.0571151 0.14025527 -0.75635237
1.037287 0.16548644 -0.75459933
1.0683857 0.15087788 -0.75629359
1.0909507 0.35602188 -0.73978049
0.87152225 -0.026448876 -0.66263753
0.87131774 -0.042815141 -0.63511437
0.87388241 -0.026498061 -0.6410327
0.96498644 0.0063385796 -0.73625982
0.99078923 0.0042028646 -0.73076612
1.0030898 0.02894528 -0.75126725
0.99281287 0.035236198 -0.75338948
1.0106713 0.056824807 -0.75573128
1.0003791 0.032067169 -0.74835175
0.8683567 -0.023167953 -0.65743762
0.91396344 -0.0099135861 -0.68079108
0.92564815 -0.010266399 -0.67842025
0.86305827 -0.066241592 -0.65693444
1.0428308 0.052489195 -0.75420254
1.0380106 0.076283358 -0.75538164
1.0397841 0.098409586 -0.75749421
1.0459185 0.06450972 -0.75393856
1.0488409 0.090697244 -0.75599283
0.71678132 -0.17589004 -0.54631323
nan nan nan
0.7110706 -0.19032325 -0.56444621
0.85695601 -0.083546557 -0.64586419
0.8565203 -0.10186651 -0.66993773
0.72894651 -0.16195272 -0.53594965
0.75240809 -0.15061352 -0.56577593
0.7843945 -0.14006716 -0.58746791
0.8435204 -0.10083319 -0.6271829
0.70670819 -0.19437599 -0.5286445
0.67605942 -0.24133271 -0.53964621
0.67667234 -0.24036844 -0.54121751
0.7030381 -0.22988755 -0.55306888
0.66815472 -0.25837481 -0.51794881
0.70361251 -0.23406419 -0.54671323
0.7068367 -0.2295101 -0.54539132
0.69897735 -0.21708858 -0.55163825
0.703219 -0.19164456 -0.53546417
0.70068687 -0.21232536 -0.52687085
0.70479017 -0.18692979 -0.53455639
nan nan nan
0.79862744 -0.14450566 -0.61636496
0.81817448 -0.13320428 -0.62075794
0.82896525 -0.11704282 -0.63075447
0.64190215 -0.28993598 -0.53144741
0.64840037 -0.3065626 -0.53029859
0.64266086 -0.29011992 -0.53050578
0.64393026 -0.28632998 -0.53083044
0.65105575 -0.27464697 -0.5287869
0.65454745 -0.26201597 -0.53592318
0.66127998 -0.31100652 -0.52233982
0.6556049 -0.29952309 -0.51870906
0.65153182 -0.27697572 -0.52519321
0.65189695 -0.27428827 -0.52554011
0.65945321 -0.25952265 -0.5303781
0.66894805 -0.24214643 -0.54131508
0.67322367 -0.24105079 -0.54161233
0.66126072 -0.26687765 -0.51771581
0.6648218 -0.25956845 -0.51784408
0.66895419 -0.25037712 -0.52954042
0.65138793 -0.2873807 -0.51966316
0.65105897 -0.27496356 -0.52299768
0.67752135 -0.2352486 -0.54409653
0.66898441 -0.24927667 -0.5280537
0.68684459 -0.23412146 -0.54314435
0.69826162 -0.19863112 -0.53759998
0.70579433 -0.17128581 -0.52961755
0.65715587 -0.35547337 -0.56393993
0.66117603 -0.36993819 -0.53647935
0.66609627 -0.35679105 -0.52635175
0.65888762 -0.34037364 -0.53735781
0.65501529 -0.32511225 -0.53788924
0.66791075 -0.35690212 -0.52588421
0.66424602 -0.34106445 -0.52939224
0.66069973 -0.36865479 -0.55074126
0.65912968 -0.35077652 -0.54329181
0.65731466 -0.3453486 -0.55756336
0.65478772 -0.33249781 -0.55508584
1.1814258 -1.3508114 -0.19934841
nan nan nan
1.2954663 -1.2423617 -0.46798059
1.2993789 -1.2481468 -0.46663216
1.1378103 -0.027790293 -0.016694933
1.1448528 -0.029737566 -0.01820327
1.1505493 0.28739655 -0.16745146
1.131565 0.28261939 -0.15496121
1.222883 0.33204263 -0.22682978
1.1619692 0.2965931 -0.20144449
1.1846645 0.31171903 -0.2017221
0.94898731 -0.030792892 0.0049673342
1.2493569 -1.3164696 0.10999524
1.3417622 -1.6120591 0.007891939
1.358158 -1.6105818 0.016957754
1.1600239 -1.0299417 0.21062121
1.1484655 -0.13484073 -0.0045932364
1.2156615 -1.2688942 0.13162287
1.3061767 -1.6901737 0.033391818
nan nan nan
0.92342061 -0.060690094 0.092760511
0.92375344 -0.070005573 0.097762771
1.2301925 -1.4311445 0.0063332277
1.1025913 -0.085596539 0.10862064
1.1028448 -0.085895956 0.10876028
1.2533547 -1.4937727 -0.016572878
1.2931353 -1.5335826 -0.005641676
1.2813944 -1.5178754 -0.0079836752
1.2548242 -1.4789461 -0.010945933
1.2544084 -1.4756975 -0.0088994335
1.2612232 -1.4872185 -0.0050610388
1.09127 -0.090373695 0.1202435
1.1191967 -0.072802275 0.10366562
0.97428715 -0.023292044 0.0013698835
1.0168496 -0.018074099 0.0019640776
0.98602831 -0.026585031 0.022312419
1.2136425 -0.19853139 0.1125149
1.2778251 -1.5465868 -0.0069589675
1.3096459 -1.6082494 -0.0046886588
1.3612586 -1.6369193 0.00935518
1.2705441 -1.5405651 -0.0020562215
0.92872727 -0.056751084 0.097492188
0.97055906 -0.024348401 0.041035745
0.97309536 -0.027463529 0.021912517
0.92960465 -0.033748753 0.02653309
1.1541082 -0.13700673 -0.0073394985
1.1676571 -1.0472217 0.2042854
1.8427305 -1.9284948 0.39935791
1.2243973 -1.2489502 0.1503683
1.2218591 -1.2554405 0.14375818
1.1798759 -1.5365479 -0.013083883
1.2385106 -1.6068801 0.0098259831
1.2202885 -1.5216721 -0.016104672
1.2385073 -1.5992285 0.0092015341
1.2406441 -1.6019911 0.0098160235
1.222513 -1.5418426 -0.015712434
1.813652 -1.868945 0.40069768
nan nan nan
nan nan nan
1.2194732 -0.77818102 0.18658665
1.1880375 -1.4623907 -0.04551119
1.2006468 -1.4583135 -0.029241264
1.1814957 -1.4706326 -0.032022044
1.1232452 -1.4448479 -0.025546072
1.1483268 -0.88614124 0.20207687
nan nan nan
nan nan nan
1.9895061 -1.1578885 0.15277028
1.9592071 -1.1451498 0.25042588
1.9607424 -1.1843585 0.19671726
1.9853873 -1.1490725 0.16390248
1.0711257 -1.4403142 2.0297251
1.008575 -1.3554052 1.995399
1.8321269 -1.9606472 0.4382844
1.9555111 -1.1294922 0.22646095
1.9497206 -1.1162213 0.21755195
1.327053 -1.5476116 2.0744307
1.3516244 -1.574761 2.0720637
1.0797483 -1.4443055 2.0327663
1.0813603 -1.4093323 2.038681
1.1213988 -1.4508362 2.0369954
1.1373107 -1.4064177 2.0498741
1.0398619 -1.2983018 2.0492971
1.0676793 -1.3700767 2.0348387
1.0501555 -1.3566561 2.0143173
1.0840396 -1.3633392 2.0408731
1.0824597 -1.3353549 2.0295951
1.0731663 -1.3363131 2.0385706
1.0861588 -1.3264368 2.0539029
1.0694826 -1.3674126 2.0037689
1.086069 -1.3436337 2.0282259
1.9816023 -1.0867343 0.15273941
0.9992606 -1.2957436 2.0481575
0.99860787 -1.2949712 2.0491166
1.0331079 -1.2954577 2.0426731
1.0031711 -1.2390691 2.043308
0.99155998 -1.2471484 2.0443015
0.98004854 -1.3148035 2.0613461
1.0049733 -1.2643484 2.0157878
0.96258456 -1.2025968 2.0453854
nan nan nan
1.5860559 1.2260156 1.0871909
2.0212195 1.2302264 0.7742433
1.614151 1.2584196 1.264262
1.339084 1.2952803 1.3172922
1.3318452 1.2935079 1.3119303
1.6532388 1.2433698 0.80643487
1.2715005 1.2575458 1.4670295
1.0468891 1.232338 1.8645694
1.0918494 1.2106582 1.9305489
1.0724208 1.1877793 2.0436859
1.0692128 1.2063512 2.0116296
1.0759376 1.166568 2.0241938
1.5416501 1.2682098 1.0650823
1.5028645 1.2611475 1.5061904
1.5999314 1.2437193 1.0679215
1.5274624 1.2314405 1.0611537
1.3779484 1.3305384 1.4816691
1.6195412 1.304478 1.2699373
1.6088593 1.2737305 1.0958329
1.5665221 1.3501577 1.2460408
1.6131963 1.316956 1.2893895
1.2968985 1.2608861 1.4755601
1.3234721 1.2858753 1.3937334
1.3418862 1.3012781 1.1989261
2.1796267 1.4611245 0.2609061
1.5098944 1.3097056 0.85987413
1.3042469 1.2683891 1.1766196
1.5060035 1.2537403 1.0400448
1.3254043 1.2888367 1.1731775
1.3895068 1.2962421 1.2086784
2.2153323 1.4467398 0.20553811
1.7338623 1.2884896 1.0274166
1.5381796 1.2364234 1.0307186
1.3042767 1.2688334 1.3969746
1.1026344 1.2551807 2.0064607
1.6623483 1.280025 0.99932975
1.7152212 1.2998763 1.0115604
1.3997031 1.2960342 1.506776
1.4109198 1.3000985 1.5619485
1.4131976 1.3065838 1.5411299
1.538377 1.2207617 1.0735053
2.0224607 0.88237888 0.22339018
1.9748534 1.2056463 0.09979336
1.9684026 1.1978083 0.09961845
1.0283241 1.2530731 1.0986946
1.5051645 1.2236215 0.44181651
1.4887711 1.2295868 0.43827039
1.6531805 1.2278889 0.49046043
1.5079893 1.2281764 0.47371534
1.4436373 1.3202262 0.7028057
1.4746825 1.3107024 0.69146615
1.3860573 1.3228375 0.80934721
1.4893688 1.2986097 0.67288882
1.3050025 1.2711428 1.2486477
1.4561906 1.3303341 0.63985467
1.3041517 1.270141 1.2502152
1.4529369 1.331984 0.70279258
1.4288507 1.3255574 0.7243768
1.4762229 1.2968198 0.58095592
1.5145925 1.2892902 0.41755539
1.5088913 1.2606565 0.38491416
1.5157524 1.2851468 0.41280323
1.5124587 1.2588109 0.4082728
1.4569741 1.3306845 0.61064452
1.4423527 1.3322833 0.69031221
1.4395592 1.3330494 0.62984967
1.4296217 1.325848 0.63236558
1.4509419 1.332625 0.59629422
1.4442369 1.3269883 0.5608964
1.4479485 1.328081 0.56041163
1.489413 1.2830889 0.56726855
1.4769715 1.3109273 0.48029596
1.465897 1.3044959 0.58905435
1.5108784 1.2793231 0.38207698
1.5091295 1.2790881 0.38958579
1.4694178 1.2941403 0.74244881
1.4957004 1.3105792 0.45939785
1.4930645 1.3120209 0.4597078
1.4921638 1.3102909 0.46671376
1.4893529 1.2983571 0.41752771
1.2212677 1.259233 1.2200378
1.6945972 1.2472869 0.46592772
1.097443 1.2932022 1.2175298
1.6771271 1.2407038 0.42498291
1.2397288 1.2566307 1.230194
1.0921621 1.2702451 1.2062216
1.3635597 1.3225206 0.66374904
1.3934668 1.3146251 0.66335642
1.0410255 1.2755215 1.2155691
1.3731443 1.3081428 0.57546711
1.4661171 1.2506047 0.42786726
1.5805128 1.2850789 0.62923843
1.423943 1.3122108 0.63771397
1.0104284 1.2632502 1.3107455
0.95127201 1.2533693 1.3174554
0.91530699 1.2438585 1.3218338
0.91945052 1.2441365 1.3136172
1.1008618 1.2552755 1.0484339
1.4636508 1.2848787 0.53976977
1.457297 1.2876083 0.53843355
1.3984787 1.3265911 0.79349995
1.4745755 1.2965007 0.67249602
1.2732562 1.2829843 0.86101449
1.2554367 1.2837849 0.8415634
1.4618275 1.3201004 0.6719591
1.588994 1.2422301 0.45269266
1.5073835 1.3199624 0.49735361
1.5047066 1.3231336 0.48450479
1.3353028 1.3004295 0.97852147
1.4684957 1.3279787 0.66508132
1.4256663 1.3265331 0.76610732
1.4678547 1.328324 0.71782899
1.4498999 1.333053 0.66059667
1.1025685 1.2463499 1.0975183
1.5125753 1.2859906 0.44822294
1.4939932 1.3151472 0.44879603
1.1152009 1.2429395 1.1109095
1.5011357 1.3148102 0.41939315
1.4952358 1.3131895 0.42635247
1.5479711 1.2566413 0.42903537
1.0586066 1.2814676 1.1016872
1.4513369 1.3405621 0.74998206
1.3742975 1.3340083 0.80576295
1.3662411 1.3267605 0.83837742
1.2473458 1.2740462 1.1956427
1.3649877 1.3086739 0.61563879
1.2746793 1.2820752 0.89280325
1.6011553 1.2393506 0.38921222
1.4674239 1.3292812 0.66940862
1.088539 1.2874006 1.2220054
1.0777329 1.2578634 1.1011398
1.3157254 1.278288 1.1595376
1.0730555 1.2590681 1.1499441
1.2592885 1.2788961 0.82586449
1.6329713 1.2205858 0.4481957
1.4549437 1.2895586 0.623164
1.4600438 1.2915134 0.73970962
1.3127993 1.2779088 0.943564
1.3370831 1.3014929 0.9616847
1.2787868 1.2895693 0.85836965
1.5990682 1.225385 0.4814069
1.4859979 1.2651402 0.39941967
1.6308258 1.2290018 0.44421804
1.5592928 1.2247708 0.47958893
1.3469148 1.2978815 1.2121128
1.3552127 1.3163725 0.89633507
1.4595478 1.297295 0.56156045
1.45832 1.2998968 0.59964156
